6.603268	6.860526	0.554491	1
4.294945	9.70161	6.627951	2
3.187118	9.396692	8.863162	3
-0.044468	6.183772	12.958773	4
2.960746	10.817315	4.249655	5
-0.052137	10.213036	8.748829	6
-2.896226	5.504273	12.700208	7
-0.053968	11.140811	6.413134	8
-3.275583	9.345964	8.828987	9
-3.068907	10.807874	4.25127	10
-4.394612	9.676274	6.623978	11
-5.121826	8.111618	8.354495	12
-6.484245	7.263912	6.658795	13
-6.356108	6.030125	8.862421	14
-5.548681	4.63945	11.0946	15
-4.333412	2.808298	12.890513	16
-6.668029	6.804109	0.552337	17
-7.480389	5.551148	3.288687	18
-7.784776	4.421713	6.488594	19
-6.322397	1.855594	11.378771	20
-4.57207	-0.04554	13.31923	21
-7.738045	0.399336	9.205675	22
-7.897862	1.868899	-0.084582	23
-8.326233	-1.382983	3.576248	24
-8.20038	-1.510484	6.919576	25
-7.618185	-2.122838	9.066676	26
-7.341923	-4.098238	7.575993	27
-6.59705	-3.699888	10.107948	28
-7.39342	-3.710542	1.099221	29
-6.803569	-5.643521	4.731852	30
-4.717969	-5.475628	10.875849	31
-6.142738	-6.144874	1.461967	32
-2.107064	-6.911277	10.792112	33
-0.023377	-3.343579	14.325252	34
-3.092	-8.812948	5.260754	35
-0.012693	-7.459311	10.179524	36
-0.008833	-9.37276	5.678409	37
2.081322	-6.910085	10.804959	38
3.124381	-8.946798	5.349062	39
4.731854	-5.511519	10.989539	40
4.550362	-0.025343	13.433785	41
6.62112	-3.707516	10.210348	42
6.229404	-6.23578	1.490273	43
6.902586	-5.722835	4.82443	44
7.361744	-4.098615	7.638023	45
7.739385	-2.135788	9.27104	46
7.539277	-3.771333	1.127297	47
8.360468	-1.512042	7.099401	48
7.904163	0.446771	9.476996	49
6.294215	1.895955	11.451844	50
4.233973	2.81032	12.811692	51
8.376248	-1.36247	3.620869	52
5.468377	4.665069	11.096652	53
2.797966	5.492922	12.644558	54
7.928587	1.928379	-0.085655	55
7.875908	4.555054	6.632051	56
6.316923	6.104326	8.929459	57
7.461094	5.634749	3.318233	58
6.443809	7.351548	6.71239	59
5.034815	8.148865	8.369328	60
7.066588	5.578225	-1.443367	61
4.347858	7.870442	-4.182864	62
-4.430815	7.82647	-4.169963	63
-7.152897	5.546753	-1.443493	64
-0.02    1.823000    14.625000   65
